# 3D point list with one line of data per point:
#   POINT3D_ID, X, Y, Z, R, G, B, ERROR, TRACK[] as (IMAGE_ID, POINT2D_IDX)
# Number of points: 372, mean track length: 5.2692904226444357
3245 1.1247622363942855 1.9235936345848339 2.4251673685373998 43 73 35 0.075066213451244784 16 611 2 625 98 833
12544 -0.097834975618675379 0.99186236504144887 1.9374239523906418 90 103 65 1.7130580969197251 19 1119 71 1475 96 930 41 1188 13 1027
3251 1.2486332458758695 2.0096360911236415 2.446663096307188 232 216 208 0.92716501830820197 16 1161 95 1226 2 663 12 629
3252 1.3047632990531335 2.052506120871088 2.4137370720046558 70 109 46 0.30461683180767962 34 738 2 678 54 518
3849 0.068741125718690121 3.2080571201110257 6.5630718350930541 141 134 88 3.0730510022315176 35 1788 12 1285
3256 -0.14701098648491479 1.3240097462520317 2.2350969446599862 213 212 221 0.17339442090229712 95 843 2 716 54 120 8 564 31 287
3259 0.25158720138976881 0.90377317572771398 1.8493807554912955 80 153 83 0.019537898980160721 95 838 2 753
3260 -0.155199017909325 1.7598008325857433 2.0257707992683862 146 156 82 1.1505437574267277 16 820 2 761 62 719 12 681 78 18 51 737 84 35
3261 0.33718399882109229 0.88117735318990886 1.8521990559148125 81 154 84 0.31588710180495816 16 756 95 841 2 768 63 808 55 834
3262 -0.10705857516171159 1.7654517745195479 2.4396719390861223 0 1 1 0.35860495184869978 16 1277 98 603
4641 -0.15693263962489817 0.95950370025109832 1.9026018912166851 213 215 229 1.1627409708308816 54 738 98 131 8 608
4432 0.13451007306223925 1.472992623373357 0.25186394759891878 150 161 98 1.0912414982732606 82 1473 55 1035
3267 -0.073269522566540318 1.8545113431077414 2.0175908648769494 255 251 233 0.36568977851248569 16 852 2 808 62 136
12618 -0.0071329339371904426 2.1860236703293379 2.7077357392528634 187 164 126 2.0877390025530804 71 760 96 274 13 291
3269 0.28951095000959137 1.4930610608299442 2.7132517382692121 86 96 51 0.26953625076730603 16 832 2 826 63 957 54 823 55 344 98 724 8 921 23 214 86 209
3276 0.11273203669279241 2.051808719005848 2.3980267158732707 88 130 63 0.39560828096707201 35 1144 2 856 30 119 78 443 70 377 76 1190
4959 0.2856785860648825 1.7907151710090683 2.4980645304309586 198 177 108 0.19604064109545213 55 1121 49 1103 33 886
3278 0.086423210800483888 2.1380183162755992 2.3726347654574544 202 197 113 0.087365488523924298 95 1048 2 865 62 812 54 670 98 587 8 809 31 93
3284 0.72092247570350754 1.4989403056404385 2.6456162824307223 51 99 53 0.11716120476573659 34 388 2 923 62 923
4442 1.1441816192998553 2.1985165371993025 2.298191830845663 242 233 158 0.014737145503745122 63 1041 55 1064
3285 0.16209383834376534 2.4492340633273297 2.2524392506720705 220 210 123 0.10847541085552001 16 1019 95 1134 2 925 62 892 63 1213
5675 -0.060042551572397171 2.4139326766440479 2.3555797315654141 114 142 72 0.33109010809910921 35 462 74 296 83 167 51 9
3291 0.96675548205902107 1.3030162396375682 2.1234742835573468 165 169 89 0.30447965994365228 95 449 2 1001 54 1371 98 869
4013 -0.12551707109465793 1.0033939500254665 1.9421754319133799 57 117 63 0.37325537107378393 77 931 63 911 82 1509 55 1457 61 695 76 1398 76 1758 60 1359 79 1333 18 1164 53 366 93 31 52 645 41 675 33 1439 19 537 22 1018 71 1051 96 546 13 603
3292 1.0440214862481891 1.6259678137373696 2.7172526935184447 68 105 53 2.4114624701760987 16 1015 2 1021 31 241
3294 0.54829371964858198 2.5235875938645802 2.2147409062140846 212 199 128 0.38975888083740629 16 1129 2 1033 62 1440 95 1577 12 898
3953 -0.19474902460153939 1.0318065826981822 1.8972800409310013 142 138 141 2.049325735632253 77 934 63 266 55 984
3296 0.8942524131224564 2.1107519893083024 2.2904918872437685 226 221 131 0.25697720125715656 16 610 2 1061 62 586
4464 0.15209368344534874 2.3430220799888488 2.2769621301058112 80 122 60 0.13677063906829209 77 1356 55 1271 49 1260
3299 1.0041740402317727 2.174343949854328 2.2689163686525449 251 234 152 0.14166417062475412 34 1299 2 1092 98 732
3957 1.2764689113092276 2.0613742477106407 2.3835001817424142 164 195 119 0.87773053533672274 34 1327 95 750 63 316 98 404 8 23
3300 0.86858689672466494 2.482660472226708 2.2236059855921306 78 120 50 0.18006875439427228 16 1176 2 1095 55 1198
3301 1.0394772614454235 2.2088085097944612 2.2684325889645933 94 162 76 0.2163080559799691 95 1242 2 1099
3304 1.2896492350543838 2.0470415527043233 2.4175419560962896 144 179 98 0.34743826728440041 37 490 2 1122 59 1304 12 1064 83 1032 78 604 51 591 45 348
3306 -0.25153054521442847 1.0558286284779084 2.0037923695984188 213 213 223 1.6474718940803144 2 1127 63 1390 26 76
3308 -0.032312638636610692 0.85565358330828256 1.7889403087217386 154 146 147 0.48419631250386413 16 1196 2 1135 62 682 54 778 98 670 8 601
3310 0.1544632761530802 0.71144066008093654 1.6674668013150842 126 101 75 0.28419817279108311 16 1197 2 1138 62 698 31 336
3905 -0.18311708583228131 1.6297063861154861 2.6678199347590721 0 0 0 0.78486174010803644 35 2559 12 2015
3316 -0.055164990977978251 1.5910033564433066 2.7666214614051561 75 88 49 0.34388034670174833 16 1257 2 1179 62 1163 54 1148 8 1285 31 583 98 999
3319 -0.16858075082188778 1.775318151850469 2.0269679983526978 255 253 205 0.55583351555708038 95 250 2 1185 98 921 51 735
3913 0.48960853322523207 1.5059534129431289 2.6576180875623319 60 110 55 0.31395930894935764 95 1727 16 1650 2 1573 62 1589 12 1514 82 1642 34 1910 77 1627 74 1049 63 1710 54 1515 55 1840 98 1354 49 1761 8 1574 31 927 83 1186 61 262 33 1449
3320 -0.080094293018860854 1.7698720727584027 2.6555134029518328 62 108 48 0.29070622322123518 16 1276 2 1187 98 962
3323 0.12967512434613226 1.5723692033670382 2.6957108476380167 128 120 67 0.2846373276495473 16 821 2 1200 62 1202 12 768 63 1438 54 1184 98 1035 49 1516 8 1264 31 576 83 768 74 165 41 521 9 888 94 122 23 301 86 283 72 39
3324 0.31962990942831859 1.4576615448154733 2.7215107210792104 62 99 43 0.80670303792177456 16 1626 2 1225 62 1242 63 1713
3325 0.030464443413341404 1.9365646708113269 2.4803388331232989 62 112 50 0.10034220984021332 77 1722 2 1226 12 1134
12467 -0.14073525545950363 1.0807275466721593 2.0230904621713881 32 60 29 0.24670920911530181 22 1023 71 1055 96 552 99 15
3328 0.19607676504704533 1.7017534467115654 2.5662164386823401 71 112 50 0.17385493577991651 16 1304 2 1235 62 1238 54 1168
3760 0.76710968851443917 1.4805607401075025 2.6587505659073134 56 103 55 0.022583330273711698 2 385 12 418
3329 0.55304557190104831 0.93902932887952517 1.9851082057265113 173 184 133 0.35826097873606383 16 1270 2 1240 12 1175 63 1261
3330 0.2907454048290356 1.6188025012177218 2.6111278714333821 173 152 90 0.12663295212706036 16 1305 2 1245 54 1200 98 1052 8 1234 31 555 78 827 63 1425
3333 0.22450751795270923 1.8446130565184025 2.47896444630255 154 144 84 0.21211487032710921 16 1342 2 1258 98 992 31 501 83 796 78 761 50 359
3335 0.043140890767585927 2.1751773104949326 2.3874637941067181 136 168 95 0.58167988287501227 16 1368 35 1627 2 1264 54 1077 31 684
3336 0.24420013332630935 1.8380821170905817 2.479884555983741 61 102 47 0.2730618059330357 16 1348 2 1265 98 996 8 1191 31 503 44 499 30 369 51 803 50 357
3768 -1.5028064684141365 7.4779501138766777 18.384431931051285 132 134 81 1.943548163914389 16 274 12 484
3337 0.47190716923764642 1.513320826995967 2.6577271515825878 58 99 50 0.2295027892715511 95 973 2 1271 62 1284 54 1263 55 1001 63 935 49 1000 31 575
3338 0.088050356419993925 2.1584754093581489 2.3644771806113294 89 156 69 0.27156859101592562 74 277 77 1791 2 1273 55 1709 82 1798 61 976
12421 0.21654674297387053 1.7325324972781353 2.550534416579624 189 184 109 0.1674512962688868 22 1095 71 895 96 610
3772 0.90216012861375094 2.0539638606989254 2.3070264183863758 240 227 143 0.21802350420132197 62 580 12 525 8 80 2 587 83 469 63 409
3341 0.43580893045344604 1.6613088124318531 2.5506417783773734 54 95 43 0.12822407382828685 16 1349 2 1281 63 1415
3345 0.8415019836416795 0.92096977153056403 2.1896517039362711 224 226 239 0.31288756535136208 95 925 2 1303 62 934 63 37 54 1047 98 905 8 872
3716 0.1165362240822974 1.0460920673870935 1.9434022478596922 153 167 115 0.35555398809997418 16 751 95 122 62 79 12 74
3351 0.7237710907146776 1.5661509633939203 2.5944227736771079 44 94 51 0.28489223547587172 16 1378 2 1344 12 1272 78 889 51 891
3720 0.31571197250516886 0.86052955054576796 1.8265011580405497 74 154 83 0.44653984317694589 2 1183 62 1210 63 1270
3353 0.57895517188472156 1.8902582174069698 2.3875129285673413 58 96 52 0.443114810320546 95 1468 2 1358
4245 0.44150974300423979 2.3752734071626795 2.2215387572033789 219 214 129 0.2560750585459296 63 1590 54 1103 55 1696 49 1600 33 1251
3354 0.4906350980038387 2.0880596366075816 2.3003253586381289 66 110 55 0.2188373784976447 95 1488 2 1365 55 1627
3724 0.522218398180468 2.374913806097164 2.2140862987111021 235 223 136 0.052341446775287036 2 1830 62 1843 54 1612
3357 0.51505410210917835 2.1374533794545028 2.2773148277846538 64 113 58 0.035183896556174959 95 1502 2 1382
4750 0.7460907057189391 2.0982526436947317 2.2764607151936467 229 216 136 0.13067749828057815 62 1445 98 1050 8 1036
3359 0.90810713512810293 1.6090767310345471 2.5768499251356149 179 165 106 0.24171404262872198 16 1421 2 1394 62 1425 31 542
3360 1.0128793041754081 1.2064727037794112 2.1492875243222156 70 123 63 0.15446137720632483 16 1399 2 1400 62 1446 54 1389 98 1227 8 763 31 570 30 378 70 605
3672 0.34543330398621003 2.272151720973961 2.2575720386213511 89 150 71 0.052230843765082927 16 1901 62 1818
3370 0.9844035971530416 2.2470940563726627 2.254331000224048 101 174 82 0.016126130055692394 74 903 2 1471
3375 1.1394131145064352 2.1919739220648355 2.2862021027393817 226 223 146 0.18576101457580005 74 927 95 1617 2 1494
4259 0.046066894599713276 0.79485826576936836 1.730177077978019 113 98 66 0.51480412053175351 63 1660 95 1640 54 1226 55 1788 49 1353 43 876 61 1370
3376 1.3160997341559171 2.0798337709366042 2.3939964440049715 74 133 54 0.27346076732322899 16 1542 2 1497 54 965 98 1388 8 624 30 37
6098 0.20378052089905963 2.6704883382435383 2.4380212259284879 99 74 53 0.5951184488562653 37 551 61 613 59 738 76 1710 82 1417 60 1970 79 1902 20 1218 27 1650 26 1151 65 1031 18 1626 53 879 93 486 85 1768
3386 0.67975039808799009 1.4177776576386036 2.7232417925407884 52 98 52 0.53769231473333634 16 1658 2 1595 62 1334 54 1324 98 1181 8 1216 31 802 86 348 48 159
12531 0.082233785789713479 2.3074160951028184 2.3044935389214829 81 137 58 0.14501118867054519 22 1360 71 1429 96 910 13 971
3392 1.0516346482729495 1.323093710481261 2.0933880752224723 68 110 56 0.091165844077461769 59 1989 2 1666 98 1415
3394 0.63152030132710102 2.4816955802428784 2.1970687443456969 103 187 89 0.20125000265928578 95 1866 2 1676 62 1454 12 1546 54 1121
3396 0.76129064787172906 2.2343498149982208 2.240598775338543 206 208 124 0.27619413007571031 74 1151 2 1679 62 1694 12 1556 55 2083 35 2205
3828 1.0566270281912662 1.4704851438425821 2.057843220784207 250 241 214 0.31782603848750596 62 1078 12 992 54 996
3397 1.0946208154141681 1.8775759854552518 2.4361996524426539 45 72 32 0.41276561189119226 16 1767 2 1690 62 1708 54 1551 55 1475 49 1399 8 1342 43 606 61 302 44 348 30 507
3400 1.1981985368492409 2.1269032913081611 2.3215356382704631 183 189 119 0.52528270341714811 16 1796 2 1714 62 1729 12 1613 63 1743 54 1302 55 1850 49 1423 8 1317 31 396 78 559 44 315 51 801 30 19 66 188 84 25
3832 0.35013056845568807 0.77472042328410107 1.7970467428496202 72 138 76 0.41602507065130556 35 1853 62 1212 12 1108
3401 1.321030088997271 2.0372567644611395 2.4092761035750168 195 221 186 0.69655497360568686 77 1794 2 1718 63 1393 54 1341 8 1003
12485 -0.11825912309356107 1.573136018238124 2.9342387843900029 255 255 246 0.35806442612902167 22 1316 71 1163 96 769 13 244 99 650
3402 0.31465689302169103 0.84440885373837538 1.8253190282975738 79 151 81 0.29455115894059203 16 1817 2 1740 62 1767
3836 -0.0066961242517059377 2.3038320025851249 2.3563277467546682 216 196 185 1.2593674082810908 35 1973 12 1138 7 1180
3405 -0.079316770604499445 2.4040598227461114 2.3690732500911666 139 167 81 0.82084744497782469 59 2074 2 1763 62 1781 63 2124 54 1589 98 1234 8 1543
13054 0.90715496625481096 1.6091966530738884 2.571881708010733 172 160 97 0.12380229860636668 39 1172 88 260
3407 0.4892899523520281 1.9422805208713469 2.3703348444100607 170 176 100 0.55847452258374697 95 1995 2 1797 83 1621 33 1621 30 632 76 1864 52 710 19 599
4291 0.32995674368052019 0.66819794235415031 1.6642082762691828 61 48 36 0.46231292002314806 62 1760 54 1699 8 1475 31 826
3617 0.61105204679596592 2.286799762682119 2.22341671470434 101 161 78 0.33279528638885103 2 1426 62 1436 12 1269 98 986 31 369
3776 0.9015620437212748 2.2454776706293345 2.24711123393151 243 227 144 0.28003684545659396 62 613 12 543 83 486 37 507 75 351
3780 1.0803398700069098 1.352115656774092 2.0748140458056517 237 233 162 0.23374791161676539 35 1161 12 562
3625 0.19292062487633566 0.63345837170928521 1.6714998302137198 104 78 54 0.43643677401143693 16 1563 62 1521 54 1531 8 1594 31 952
3417 0.24769099287091631 0.93339358551965157 1.8751696686564929 127 163 105 0.89259913298120075 16 1948 2 1872 63 2051 55 1994 49 2071 43 1296
3424 0.15110401019686778 1.9902080764454508 2.4137801432340775 159 173 94 1.0635436564678744 34 2355 2 1954 98 1633 8 1680 55 2286 31 1031 83 1715 39 1261 50 703 44 961
3728 0.26262703027144346 0.88040725842863554 1.8358225775284738 70 151 81 0.10647879157063557 74 57 12 97
3732 0.084931306057672448 1.5525352549862992 2.7270911086519631 63 94 41 0.21900519316497538 95 235 12 150 54 235 23 88 28 56
3429 0.93075832177400641 2.3914163259306784 2.225844300914074 206 214 139 0.14599625866516752 95 2205 2 1986 12 1869
3432 0.37097392032488458 1.6732575849665221 2.5551526046443653 151 143 81 0.62783166771284493 95 2252 2 2023 62 2013 12 1894 54 1869 31 1092 83 1844 43 1536 78 1321 39 1414 44 998 88 510
3736 0.2477371020879926 2.0435863035849611 2.3649807291265303 108 146 74 0.045336591514648653 16 371 12 207
3433 -0.05562469682945307 1.8209121260029146 2.5445545039747532 63 112 49 0.95400326100394139 16 2138 2 2049 98 1773
3434 0.77677491568666923 1.3743381413777791 2.6772844131368196 72 106 57 1.4635821498241075 95 2285 2 2066 62 2072 54 1938 98 1768 31 1157 8 1803
3740 0.27187177110622296 2.3666650538998368 2.2447358961882951 228 210 122 0.11355317991456969 35 551 12 241 33 486
3437 1.1179482941296142 2.3021530700669373 2.3191630934059506 192 210 134 1.2393173698548661 16 2215 2 2122 62 2120
3439 0.21076977968857816 1.7400316134394422 2.5501596530974617 105 95 55 0.14268998692330703 74 210 95 975 2 843 16 865 77 1154 55 1123
4323 0.20249545267294747 2.07269893597761 2.3512416421940467 97 123 65 0.10218287411451937 63 596 54 91
3440 0.3072908407043779 2.554484486498878 2.2306312082116255 92 169 78 1.1322601449818046 95 1549 16 1478 2 981 77 1919 37 998 59 1791 43 825 20 1033 19 200 41 546
3808 0.46056956569498919 2.4212855886013607 2.2123604225986697 225 214 127 0.087624518124895689 95 1188 12 876
3441 0.65090738062653486 2.4814587642242243 2.1980676001163562 102 183 87 0.31595116118915506 74 461 16 1143 2 1051 77 1909 95 1224 62 1049 63 1179 54 717 49 1176 8 42 33 357
3445 0.93104595649604938 1.6260060895067896 2.5490409517473718 161 162 99 1.3599602904665828 34 2442 74 1568 2 2079 37 1733 77 2621 59 2515 62 2089 63 2235 54 1935 55 2358 82 2586 98 1708 49 2267 43 1523 41 1030 94 375
3816 0.73318888329005549 2.4602594666554607 2.2027687596447607 107 189 93 0.049414172074871372 62 1064 12 953 54 735
4341 -0.078060452887087517 0.87909943779767508 1.8899208276563781 209 208 219 0.43037227853734283 63 188 49 211
3450 0.37225754122647747 1.8840689414282146 2.4157318383284396 59 100 49 0.19344538452779392 95 1769 2 1592 8 1411 31 721 44 658 100 203
3453 0.27505708790154909 1.8724452650897823 2.4502958609098022 145 139 81 0.27363006625976172 95 2094 2 1890 62 1899 63 2089 55 2213 98 1464 8 1631 44 869 30 646
4846 0.26287410841541731 0.77271466528858301 1.775646738225058 58 86 50 0.069478347724650891 55 79 49 82
3455 -0.14294417147429223 1.4613827753058244 2.1328837305663604 68 113 59 0.17444170831649145 2 60 62 48 63 440 54 76 55 473 8 523
3601 0.30611124268741258 2.1040213636526617 2.3205715103419657 253 226 133 0.50161703046486217 34 1637 59 1176 62 1328
3456 -0.13253210998035531 1.53852326188499 2.0924341310878818 62 102 53 0.17211337895093046 2 77 62 63 98 51
4112 0.33793881918945012 2.102818217816079 2.3214690639275744 240 222 138 0.16905293627196588 95 1998 63 2000 33 1740 51 1078
3459 0.2623123669397262 0.6649561209080983 1.6390311741122392 40 29 15 0.26120229213533158 16 46 95 805 62 91 54 924
3605 0.55490631451927164 1.9200098125944098 2.3752224066614334 115 128 72 0.49698626278737884 82 1724 62 1374 83 887
3460 -0.11635654220355662 1.6946414201038009 2.0177174140754683 76 136 66 0.47718876511007835 35 225 62 100 54 35 34 259 8 432 77 388 85 338
3461 0.016163188975452599 1.7039516103289907 2.6270356019951087 72 117 53 0.15884205895811299 2 123 62 117 98 138
12298 -0.12386738837330373 1.7223856456049504 2.8010067063817057 48 80 30 0.069888925228194398 22 333 71 330 96 227 99 173
3462 0.015832967878081416 1.7074375550807124 2.6355969179246008 72 117 53 0.11554799860260107 2 122 62 118
3613 0.54885170904588776 2.2451387000731295 2.2488684235771061 222 218 132 0.048041330776994517 95 1537 62 1415
4639 0.66596488957327027 2.4345326192839294 2.2001814152509325 229 216 133 0.09706470044793214 54 153 98 126
3470 0.21304828289078445 1.8151347168266307 2.4956577414538121 185 163 98 0.027319351987555727 95 357 62 214
3681 1.1015553993849132 1.9551070774279011 2.3851258541013425 83 157 72 0.11487309736256307 95 2034 62 1873 63 1940
3472 0.49644848289208854 1.4868249022052922 2.6769231451385465 156 144 93 0.21243444162285061 2 868 62 259 63 250 54 878 16 871 49 326
3475 0.26226396996833323 2.0036712428675614 2.3676265313173048 161 166 95 0.077492930636551882 2 307 62 276
3685 0.36070407765846818 2.1795109288353149 2.2859185216203688 224 219 131 0.78608184836467854 37 1576 82 2501 65 1279 52 895
3476 0.65254875729161843 0.72821778551546812 1.8969225672202747 71 117 67 0.3762408492131345 2 837 62 277 12 1184 54 606
4122 0.76952694549821865 1.5217174850005477 2.6446051884925263 72 105 59 1.0283350820292341 62 1960 63 2138 55 2169 8 1677 31 1036 78 1274 44 864 51 1266
3689 -0.41409881900264506 1.9670754787229525 3.7687363164655117 0 0 0 0.097753656410665468 77 2585 62 1936
3480 0.6898034861565866 0.74480136501549965 1.9401760072657555 150 168 117 0.16951665504451324 2 208 62 297
3484 0.76011751948902562 0.86662406598490238 2.0781037953793504 151 150 163 1.1067545060227055 77 924 62 347 82 129 54 610 98 526
3792 0.053899304200045031 1.5405093339537028 2.7554517656390702 71 98 46 0.2930010103050984 16 791 12 752 63 1440 16 1263
3489 0.53599800810086395 1.9668981523281843 2.350338599914807 74 107 58 0.11734177956968578 35 490 62 398
3493 0.71016899774686182 1.6842214783007843 2.5116939746782969 45 84 45 0.10878762063692886 2 417 62 415 54 400 98 325
3641 0.29134534225779735 2.5130594909542481 2.2324382882720419 102 189 88 0.57176054679835453 16 1740 62 1636 63 1865 49 2030 33 1505 19 817
3804 0.38067979076948261 2.4708760626490127 2.2231248185472889 117 200 96 0.27436618460850909 62 982 12 856 98 585
3501 0.59767329398426694 2.4894624897096 2.2021305889967793 113 188 92 0.19259932191289048 16 631 77 783 62 532 55 671
3506 0.96674119731246511 2.0451119168726986 2.3106922576257851 70 113 54 0.0059320406951982371 2 608 62 602
3507 0.99450387302816567 2.0327415135574691 2.3198158843386785 233 219 139 0.25219691588234161 59 615 62 612
12288 -0.11257781979294258 1.7085147997848593 2.7436584580343619 62 113 45 0.1745155813611147 22 308 71 300 56 450 90 161
3589 0.15478061380523925 1.8052307164114916 2.5219014004169948 66 103 49 0.30590611990655392 2 1239 62 1243 54 1143 98 989 49 1555 43 713 51 808
3508 0.95090202248533362 2.2014590697223713 2.2592484379900912 109 165 81 0.12336590457753729 82 628 62 625 55 446 51 93
3509 1.0691628020496233 1.5654031231990797 2.0269527693669938 254 247 201 0.11958197470673219 77 390 95 600 62 627 54 538 16 565 31 156
3512 0.9989004971850588 2.3070951499032 2.2391075198984152 98 180 86 0.022900127470909339 16 675 62 651
3597 0.65949656920971367 0.71657201190165021 1.8940162928978974 224 225 236 1.1088247446482644 2 1236 62 1291 12 1494 8 1252 31 342
3516 1.3741012394627858 2.3119725215355973 2.4516699717862522 128 97 62 0.2383334379035261 2 690 62 676 63 391 54 474 55 365 98 381 78 240
12815 -0.12611548111821949 1.8806751888878628 2.6135685221071436 78 140 57 0.34031514239237121 96 207 13 216 22 687 99 336 56 623 4 377 38 123 90 115 17 285 73 81
3518 0.043722393214283423 0.99578127497502833 1.908356282253395 146 158 106 0.032399982413788969 16 734 62 696
4897 0.1592238469522286 1.7544348774473608 2.5521935254746619 83 113 53 0.028267956426188352 16 253 49 525
4176 0.69998230849354925 2.1032119564778986 2.2789588187399459 244 225 143 0.021866905382307206 59 583 54 276
3523 0.070164547113745923 1.5994731107469182 2.693550074301561 86 98 47 0.4354249775793318 74 158 62 748 12 756 63 1455 98 672 41 276
3669 0.66615029227099243 1.4619503838164909 2.6851848192409089 111 116 75 0.59418907699900003 95 1741 62 1805 8 1438
3524 -0.090680483300034434 1.8656498720793344 1.9820301442227566 252 246 202 0.36079275640553821 95 959 62 758 54 16 98 548 8 373
3525 -0.064974287514904985 1.9300552921544187 1.9919035228751969 113 99 72 0.0033077064588627578 2 822 62 771
12362 -0.13760333715706172 2.1028740893769391 2.4612948880490606 226 205 113 0.18000436507274264 22 680 71 690 96 205
4703 0.024462553178572342 1.7754121258696198 2.5846044333489813 74 114 52 0.15623423794863189 62 755 63 1098 98 631
3534 0.38775402870415987 1.6118052355712162 2.5859167415094726 62 94 44 0.14184584528104538 16 883 62 836 54 814 31 242
5932 0.34526504621834142 2.2729542958070112 2.257232238529844 62 105 52 0.17785186256812119 49 2018 43 1254 55 2113 37 1488 63 2013
3749 0.073010711020037977 2.5180399434812966 4.2603749305398271 83 110 58 0.98038463868196168 62 171 12 312
3540 0.70182290987661222 0.66901343462541052 1.7682323568541052 229 228 239 2.1728923878662649 16 785 62 884 8 450
3541 0.65824575633802485 1.4045356568116139 2.7296424076151 206 195 118 0.1730080029292817 2 891 62 889 12 892 54 947
5931 0.19577154179852632 2.1333711046508768 2.3378525288693286 61 99 50 0.27792020053038136 49 2020 43 1250 33 1662 41 905
3547 0.74230880237200314 1.4967241239933784 2.6455018154059071 54 96 51 0.17303951890052702 2 932 34 1085 62 930 12 916 54 945 31 256 78 654 51 696 16 336
3550 0.50289492263930657 2.0069890236112857 2.3331266505570003 63 100 53 0.018557739342529196 16 999 62 946
3697 1.0014420982757366 2.0847966642741023 2.2628458502969298 145 158 90 0.86125605824112339 95 2201 62 1976 54 1806 98 1648 31 1020
3552 0.31368808436143131 2.5226299659367886 2.2352231604364272 143 193 100 0.42466746580617926 95 1182 62 957 63 1612
4208 0.79504475283585774 0.99771522136153845 2.3358175838118642 136 134 145 0.52037014810202076 62 360 95 264 54 594
3555 0.67664225659991362 2.0652170525708962 2.2911719689412422 62 104 54 0.082462040999538216 2 1008 62 1015
3701 1.114189835318985 2.3463751175829914 2.2807263011756875 171 195 114 1.0613238440406583 16 2129 62 2036 63 2217 49 2178
3556 0.57301521550587797 2.3439841022930565 2.2220321884543384 113 182 87 0.069978957364358954 35 1314 62 1018
3557 0.68744006110917522 2.0825439829593062 2.2962665020520134 234 220 139 0.093201551322628751 95 1165 62 1021 31 79
3705 0.83291977791643956 1.6457113363209441 2.540236738460917 75 99 58 0.73173429662193845 62 2084 55 2359 98 1765 49 2270 8 1785 31 1143 33 1845 44 982 51 1360 41 1037 9 1313 94 478
3709 1.3019859837406145 2.2018694806015708 2.353789266862766 165 199 111 2.0753426092055887 2 2127 62 2121 54 1958 8 1825 65 1496 18 1981 93 907 31 1168
3564 0.96380091215661734 2.094962234439393 2.294707425342831 67 115 53 0.0238807598619485 16 1132 62 1085
3566 1.0121949243782502 2.3110516988325349 2.2428151655515434 140 203 104 0.54352789934502854 74 919 62 1108 54 824 82 1319
3649 0.98386388754989873 1.8993321489330082 2.3871331400866524 230 213 129 0.46748418602484892 95 1834 62 1703 54 1538 31 704 33 1112 36 308
3568 -0.22821894256248834 0.98731707616409015 1.802103611904464 213 213 224 1.0080370770154565 16 1191 62 1133
3571 0.011091759077349978 0.80840405553588623 1.7676601265775524 199 194 199 1.2418459421280688 16 1561 62 1138 54 802 43 881 49 1705
3653 0.99875504452991204 2.2123136255193718 2.2636587600391471 127 176 91 0.22084681018987731 2 1701 62 1714 63 1779
3572 0.082693114305425086 1.0581942632798627 1.9566860557110368 152 161 112 0.0240911912841194 2 1154 62 1156
4218 -0.16370813859896202 0.93307952321303755 1.838382239036837 153 144 144 0.25485112038121494 2 695 54 733
3573 0.1765827376073589 0.81071502207410273 1.7951824684545938 156 157 110 0.080783175441006452 2 1149 62 1160 98 1081
3577 0.015012755292076883 1.6034676146646376 2.69303199215208 91 99 53 0.075881457116370843 95 1343 62 1177
3661 -0.10834390145388756 1.5913775850731924 2.0751386782224284 164 195 116 0.47802369576600123 2 1738 77 2264 62 1753 31 895
3580 0.26128235369918812 0.87671607045697841 1.8335139194675396 78 151 81 0.29196872094110554 16 1224 62 1190 63 1280 49 1346 55 1368
13235 -0.085301558751138526 1.6101189834890082 2.0798103731829611 214 209 143 0.30563866863416878 47 435 57 330
3584 0.0056371375722414196 1.5063059373690106 5.5516843972125418 0 0 0 2.0419490692475244 16 1227 37 333
3594 0.36013754043355156 1.6162331146348359 2.5945665269727853 183 162 96 0.12246022266152218 16 1317 62 1266 98 1072
4995 0.050660565690047329 1.0844086412835889 2.0008990256590717 148 162 106 0.2687147305146862 55 1445 49 1405
3607 0.66497422549287533 1.8083202032567549 2.4291113878358677 46 80 42 0.13597168861442402 2 1368 62 1395 63 1424 95 1467
3612 0.88972010677571689 1.4931944717239318 2.6596854233511769 62 96 50 0.17910497231025971 2 1371 16 1392 62 1407 63 1321 8 1162 31 566 5 593 45 660
3631 0.12490074517678718 1.7844721944753774 2.5385034903739392 102 116 60 0.35771965749646151 16 1636 62 1560 54 1458 8 1447 30 548 31 754 44 693 50 508
5027 -0.12489977121817418 1.7361153190904135 2.0072333130637152 81 148 66 0.27657313589901517 77 1679 82 1676 49 1590
3632 0.12244457993332657 1.8892302272289225 2.4857799483648932 65 105 49 0.16524951388082113 2 1559 16 1652 62 1563 54 1445 95 1737 55 1916
5330 1.0615316525858212 1.3576588466215123 2.0756451219389147 69 119 62 0.62516570427552332 59 1992 34 1945 37 1206 95 1999 16 1720 2 1836 62 1704 77 2025 54 1581 98 1553 8 1363 63 1659 55 1371 49 816 31 764 82 1578 61 156 60 940 30 517 70 565 85 1525
5045 1.0356273099252022 1.5118918054066679 2.1211152797465234 170 147 115 1.0469530416639925 49 1697 43 915 61 1422 76 2021 33 1565 60 2042 20 1256 18 1683 52 837 41 844 9 1135 19 879 22 1194 71 1240 96 706 55 1393 13 788
3642 0.57508002323865803 1.8690537346383616 2.4020261097005409 133 130 81 0.31605710763075828 2 1626 62 1642 78 989
3643 0.87510535521322685 1.1466739667585226 2.4468475343205558 109 96 84 0.91046789450051169 2 1333 62 1651 54 1583
4526 0.21132599614078673 0.72882356854323471 1.6975615579419876 139 113 84 0.87374824630029935 82 2200 55 1767 77 1935
3647 0.70190193683727609 2.2008244822328198 2.2490543998187351 222 220 136 0.1202199274882771 2 1668 35 2031 62 1681
5337 1.0297894528331304 1.2739075586016935 2.1115464066725265 99 139 75 0.28270869642149671 37 776 8 1085 95 1451 16 1415 2 1417 54 1384 62 1458 77 1033 63 811 55 835 31 243 44 57 30 355 70 584 87 216 84 336
3648 0.97602610336556039 1.7016520738749958 2.4931421051760498 161 152 97 0.053805625194252082 2 1663 62 1686 8 1368
3651 1.0388875430557241 1.8565115750199861 2.4233185288619805 57 111 49 0.29920651138016274 59 2071 62 1706 12 1740 54 1548 98 1379 31 715 30 510 50 245 85 1626
3655 1.0451037113045396 2.2579324674248213 2.2625548201703851 101 176 83 0.013285221200182178 59 2297 62 1721 37 1512
3658 1.2513451786695819 2.0419126087932558 2.3975179865395275 61 105 55 0.48852464955788938 95 1876 62 1728 63 1724 54 1700 55 1839 98 1537 8 1323 31 860 83 1686 78 1156 46 854 11 962 47 889 69 421
3664 0.36408205537096416 1.5371047581175006 2.6510026126576194 51 92 42 0.3068897330813859 77 1635 62 1785 63 1719 54 1659 55 1855 98 1505 49 1776 8 1575 31 926 33 1463
3680 0.77586110782448159 2.4802344781381316 2.2210968759508725 195 202 133 1.1981460100392476 16 1928 62 1872 49 2123 31 357 8 1007
3682 1.103021553662449 2.1357500212351317 2.2970950685031308 225 219 139 1.2149634221839423 2 1934 62 1876 54 1679 8 1601 31 849 83 1762
3683 0.068152254112209709 1.529972726879042 2.6918357181252741 51 81 35 0.66476016399755367 2 1875 62 1882 54 1746 98 1475 8 1584 31 931
3688 0.43893837356846149 2.3444196292434238 2.2501911683880951 108 174 84 0.42894938235681862 95 2020 62 1919 63 2016 54 1732
3690 -0.049687499725763133 2.2119127313192846 2.2991839263680416 254 245 249 0.70692459160408083 16 2059 62 1942 98 1625 64 1362 26 1444 27 1938
3695 0.93151643325715627 2.1183609254537359 2.2879231973971002 149 176 93 0.77840241739227078 2 1976 62 1971 98 1646 8 1662 100 950 34 2370 83 1807 95 2199
5091 0.37322480133927416 2.408829645275786 2.2282218915960508 221 211 133 0.16404160838723869 77 2474 49 2139
3698 0.25116058229266836 1.6050671291173755 2.6367377484051917 49 91 39 1.0384114180642046 2 1997 62 1989 63 2212 54 1840 98 1673 49 2183 8 1713 31 1060 43 1418
3699 0.24995580787412494 1.6034065092474332 2.636427525064271 49 91 39 0.76792328267218812 2 1996 62 1990 63 2211 54 1839 55 2324 98 1674 8 1712 31 1061 43 1419
3703 0.33358013201693137 1.5861499385290998 2.6240815072646195 157 146 85 0.35460013888855463 2 2056 62 2053 63 2284 54 1910 55 2373 49 2287 8 1812 31 1153 33 1906
3704 0.25551214970814962 2.2347400510626305 2.289275371871561 95 145 71 0.62436695146287491 2 2067 62 2061 31 1073
5109 0.51869758825279544 2.5465448853809427 2.2100103821106001 90 163 77 0.99823471865965485 55 2333 49 2246 33 1816
4590 0.30720527294932237 2.2769889246582742 2.25240470580149 126 140 81 0.96493682380738943 16 2071 55 2289
3711 0.48433567409914347 0.74123775790985391 1.8339734254999993 50 84 49 0.44545704919078627 16 1234 2 792 62 194 77 59 59 67 34 85 35 77 95 128 12 759 54 985 55 38 83 81 39 505
3715 0.11629067625249868 1.0475055796047157 1.9506823010251428 153 167 115 0.2062753366938779 16 750 95 121 62 78 63 884
13066 1.2622122654782564 1.6762878164468211 2.3872030024795001 118 130 73 0.16206180847348489 11 1247 88 546
3717 0.58331524683476998 1.7265984620533019 2.4864687867183322 59 87 46 0.073500001034731741 77 420 62 370 8 296
3731 0.079883159759050595 1.5799338360562154 2.6944470673787579 55 89 39 0.31753050594743554 2 119 34 281 12 149
4890 0.42198173738945693 1.955017381074033 2.3723602112495095 74 110 53 0.068134747062176204 54 207 49 488
3733 0.10115126157842688 1.7653440505219378 2.5655820100196163 166 150 84 0.11115039145848378 62 169 12 158 54 155
3739 0.27215578476616031 2.3666106942967131 2.2440628659375412 228 210 122 0.076782863817256533 2 406 16 478 12 240
3742 0.3897445223470512 2.2519192349450887 2.2612800324875999 240 220 132 0.050653018227397553 35 547 12 282
3763 0.81994720329532633 1.5746152103524904 2.5916020185342936 84 112 64 0.2143626539563529 34 438 62 435 12 447
4922 1.1372516732972457 1.4993976389700407 2.0465009601083306 255 255 235 0.26271135212580676 82 1062 49 829 77 1652
3765 0.81608723165748576 1.912564318650537 2.3684010762183139 61 100 54 0.05392704931971929 95 588 12 472 54 366
13130 -0.16318509331807973 1.4537780169847874 2.579253150159603 157 137 106 0.32057926352305582 56 569 4 346 90 422 17 526 73 435 29 226
3781 1.0241396563396405 2.0900884369379447 2.3012462939051912 67 115 58 0.010699414100233461 16 645 12 591
5164 0.84243195524688586 1.8354041374097685 2.415998448540627 201 189 117 0.031054075699109136 12 481 8 164 78 249
4447 0.39589490757855123 1.9090956818795304 2.4006330552637221 61 102 50 0.053905318119242235 63 1078 95 1059 55 1143
3790 0.40826814834620462 0.75695990241655275 1.8108856438819882 60 119 68 0.11315606799881664 62 781 12 732
5163 0.46224488432739558 2.1475868300389847 2.2692864148013427 198 190 115 0.10016115875515821 63 567 8 160
4954 0.73821403258436546 2.1685465644918387 2.2611302831658384 253 239 156 0.13385141605208375 77 1325 49 1078
3797 0.18140598690760198 2.2932476781562996 2.2833870274054737 109 171 80 0.1407456460668996 74 328 12 799 83 216
3806 0.50132518412482119 2.1133307562251127 2.2891598972697156 88 138 70 0.18955199848212267 16 1028 12 872 49 1126
4976 0.35137777339856513 2.28181261312392 2.252646305037858 61 104 49 0.19651031066222752 77 1350 49 1212
3811 0.53004933787963227 2.2490495231041954 2.2434907032966112 85 148 72 0.15718716134958063 2 999 12 885
3814 0.62427783682069138 2.7559986696111922 2.4734708749178913 128 97 56 1.0831729398385814 12 941 63 682
4986 0.2280693510612104 0.89726172405144888 1.836917932727286 81 152 78 0.22067191625135413 55 1373 49 1351
3829 1.0142610908031235 2.0688831114388027 2.313541565256668 61 109 58 0.071077907587198522 95 1207 12 1015
3830 0.9833947573288232 2.3239576852404036 2.238986007558367 104 179 89 0.19142765119755814 16 1175 12 1018
3835 0.55337478626294656 0.63944931609263156 1.610866481333018 234 239 253 1.2383557933501459 62 824 12 1135 54 1023
3837 0.20145855019574857 1.7531507468152434 2.5403762371192511 73 119 54 0.22938085458939922 2 1243 12 1161 98 1006 78 775 51 829
12623 -0.17160530962637452 1.7330797725684801 3.148485064437601 106 74 40 0.24069196588702171 71 466 96 293 99 216
3838 0.60008407697018806 0.71658960049211073 1.8600550628218604 219 220 234 0.59065910914876041 2 1217 12 1171 98 877
4739 0.55619042354100889 2.1395121333278535 2.2748296536353587 84 145 69 0.16990845794892395 63 1539 98 997
3859 0.91605924572735986 2.2274844803840419 2.2511588444204529 87 157 76 0.23872413672093659 35 1769 12 1347 63 1514 55 1589 82 1794 43 684 85 1683
3864 0.13965584251537191 2.2437075345715312 2.3091678221069665 202 205 113 0.29973697150630257 74 1089 12 1479 98 1434 51 933 30 480
4757 0.51000230543829339 1.44449676895206 2.7024636363217116 44 90 47 0.27000191489695496 12 855 98 1129 31 590
3866 0.40049569932460793 1.5980521754503638 2.5971932984536461 129 136 73 0.11580315396913302 74 1048 12 1504 98 1336 31 776
4238 0.29555246665989088 0.63965250413838015 1.6393753938414513 24 19 15 0.11717165876155673 16 47 54 948 98 798
3871 0.58878384178504939 1.611975307127425 2.5671861394735815 140 138 88 0.33162232436996081 62 1619 12 1524 55 1841
3872 0.6689943937670505 2.2768395676424711 2.2351810729000303 108 170 84 0.18560521091723151 62 1679 12 1547 98 1293
3887 0.40500073973775913 2.3151680668854446 2.2353801897071413 196 203 114 0.56052086994442607 74 1417 12 1789 49 2132 33 1741
3888 0.5870049212304399 1.8194159649271484 2.4245901501002396 165 151 96 0.38804040447694871 62 1912 12 1793 63 2079 55 2198 49 2106 8 1621 31 973 83 1735 43 1332 61 1454 76 2053 44 853 41 865 9 1154 36 682
5586 0.45806829373126101 0.91850955850435934 1.917738955785304 61 120 65 0.095672168134246685 37 1400 100 701 26 947
3890 0.84684608791019045 1.9367735191504365 2.3562205458814458 204 194 121 0.25854302141886248 95 2126 12 1804 83 1750
4789 0.13938838120290253 2.2477143857584836 2.3136678212474844 190 190 105 0.2791079829453556 12 1480 98 1433 8 1530
3898 0.13350272284077661 0.72699485159416621 1.6779777291384286 64 48 33 1.3889746874592017 95 2211 12 1878 49 2217 83 1826 43 1447
4270 0.038569144599754294 1.9973036676611682 2.4431869968759186 69 114 53 0.4009541653420941 34 1576 54 1428 8 1435
3903 -0.071792158559666613 1.5187895641164268 2.7141617545227112 169 164 169 2.2214489729616198 74 1662 12 2006 83 1932
5593 -0.16229554706674221 1.7254106398515459 2.0242063868553046 137 188 92 0.76949709360425633 59 2347 100 732 64 895
3906 0.58560861749743864 2.6878214153899762 2.3968435040766622 188 189 138 1.6305294896832625 16 2082 2 1975 12 1859 34 2378 74 1502
12997 -0.14453981646838759 2.0678082247472998 2.6979820408897743 233 210 163 0.84940122218842029 13 265 22 405 56 474
3914 -0.18884242789323649 0.93945869494437972 1.8896861681464949 206 203 209 2.5425389897608697 2 2125 62 2113 12 2018 98 1789 8 1831 31 1172
12542 -0.13771006091008806 2.0057126185183423 2.526167572895059 62 110 44 0.47589565384302823 22 1408 71 1465 96 945 13 1014 99 720 56 984 4 878
3919 0.67471771429800886 1.830343531473277 2.4152478215348618 173 161 103 0.20593196626094204 16 1424 77 1214 62 1403 82 1191 12 1267 34 1639 37 335 35 1664 74 784 95 1473 63 1435 54 1250 98 1083 83 1232 85 1082
3931 -0.028441616674116682 1.8369405368257579 2.1249732840936235 0 0 0 2.1560030402090353 59 2622 37 1846 35 2545 12 1911 74 1544
3936 0.020171208915035058 2.2448392415283824 2.3418213432473109 236 228 233 1.6544750347839898 95 1775 16 1681 2 1269 62 1256 12 1460 95 1444 16 358 62 216 63 673 63 1599 55 1269 77 1819 98 926 8 1157 31 408 83 1710 61 521 64 1140 34 2167 39 1259 78 709 51 738 88 205 74 280 5 511 34 1140
3941 0.34921443741771352 0.8359731042474241 1.8253430914912336 108 157 94 0.10563772384977083 34 84 63 85 85 82
3943 0.081993506284130727 0.73306921177531581 1.673399002499762 255 252 227 0.22245662677272038 77 30 63 106 49 109
3946 0.17712284818454838 0.83248251361800241 1.7971775930609637 162 163 119 0.20006053089938777 59 43 62 74 63 114
3951 1.2785932601993852 1.9063332399590669 2.3683262183320228 220 207 188 0.30118092929593626 77 1250 63 251 55 238
4835 0.55068510150215366 1.5772235650306463 2.5934588086031125 54 107 52 0.29702921248497383 16 1359 62 1321 54 1268 98 1106 63 1385 55 1490 49 1439 8 1192 78 866
3952 0.57988524883385473 1.5456216400203295 2.6184298144159484 54 107 54 0.21502056376363515 62 315 63 257 98 329 78 331 51 319
3954 0.78913148624401941 1.6934652027468431 2.5057692618494061 50 92 48 0.26855163570462121 2 978 62 995 63 267 55 275 49 286 51 632
3959 0.89124530720638184 1.8463609207177105 2.4136264658362636 80 105 55 0.1020600169731606 16 522 63 319 83 449 39 311
4853 0.21376684039896043 0.91299224991985972 1.8492049022572319 183 186 137 0.038683107101907158 82 125 49 152
3962 0.85905115474869598 1.8845084257451474 2.3899157173262529 59 96 50 0.028614287094165788 59 526 63 348 83 432
3967 -0.0019064293112318743 1.5687342630469256 2.7448169615334144 162 156 88 0.13986605578250891 2 103 63 401 33 493
4624 0.15640762653646698 2.1256902799930222 2.3517551305592259 215 203 118 0.32630588299915403 34 2169 35 2159 55 2228 77 2450 82 2438 37 1466 59 2243 74 1273 49 2137
3971 0.58131113198064743 1.8862616599875328 2.3877307170317787 53 93 50 0.13910429676456018 82 496 63 418 78 162
3972 0.93878546368991922 2.0903659870316971 2.2943291151929737 68 111 54 0.085751550259598519 12 555 16 615 34 666 82 566 63 421 8 64
12810 0.86407410965427145 2.0026879533569439 2.3280659504114749 0 0 0 0.17354528844775668 9 504 47 498
3973 0.4830535573857288 1.859922728078562 2.4161406448083973 59 97 48 0.10487805099344862 16 391 63 425 55 440
3975 0.032879764869655825 1.6793870870425889 2.6487238008821867 75 119 55 0.27183754180012226 2 125 63 441 8 493
3981 0.89120338833645651 2.1683579351921591 2.266208346351394 76 126 58 0.11563582270527109 59 1276 63 470 49 397 39 317
4127 0.71747799313163385 1.4574923845737346 2.6868784913193897 109 124 75 0.80522780726837928 2 2007 63 2206 49 2168 8 1709 33 1801
3987 0.040205799182479761 1.819128827204392 2.5474429773292271 74 112 51 0.12131509480524438 62 149 63 516
4634 0.40562385666688522 2.5734859796337548 2.2235467742575721 114 160 76 0.39764987939543206 16 1101 98 43
3989 0.70246633931963809 2.1690262555325184 2.257197555996155 71 115 57 0.13051368148168152 77 630 63 520
3998 0.037554338561922869 2.1490075921031506 2.3959340854815894 92 150 69 0.32759483660408328 62 205 63 638 55 683
4666 0.41873213998723269 1.6790162913988447 2.5327933408756986 75 99 50 0.1199367929761688 16 303 98 230
4021 -0.17623474203570119 1.3598688489518398 2.2140535290886358 150 116 78 0.79527277187565348 34 158 63 1027 55 1090
4022 0.64288128581679327 1.6043713886484221 0.92258805857227988 74 130 59 1.4102364266011214 74 292 63 1032
4027 1.0684434118260797 2.3061610000380606 2.2632088795151475 95 166 77 0.16650717341255528 62 1115 63 1087 20 285
4029 0.66282865815089309 2.0844834944032438 2.2857612476017026 232 219 143 0.13175365881945947 74 402 63 1094 54 779 62 1013 95 1155
4030 0.48269556967650523 2.0117045240720746 2.3358060805786995 54 90 48 0.1250249791693086 2 946 63 1101 54 756 33 861
12303 -0.034333766213490498 2.504163587181119 2.3524988777098623 146 124 68 0.12180934104089761 22 343 71 346
4688 0.97708850869832775 1.6893853824995249 2.5148622777629481 63 97 50 0.27755533056238418 54 512 98 412 5 175
4385 0.26430302029966313 1.8869399803656695 2.4438233313749409 182 165 102 0.13087952442401793 77 469 55 548 51 129
4035 0.49763923242556479 2.1558627287740495 2.2732885704913253 246 224 137 0.086275467223507804 2 977 63 1132 61 439
12874 -0.087570883487543105 1.1882768428764066 2.1659348674297147 36 63 34 0.39886458407897529 63 286 49 1014 43 585 77 233 82 1009 76 1453 33 845 60 1417 79 895 26 107 65 543 18 771 53 76 53 414 52 88 52 395 19 69 19 328 71 840 96 358 13 395 22 80 71 94 85 225
4037 0.19110374972317057 2.0522472728143111 2.3768466181243273 229 211 131 0.19119190919010273 95 1049 63 1141 49 1193 41 256
4043 0.079455455729490032 2.3391858694912222 2.3042835165957114 229 210 122 0.069357582866989925 62 843 63 1204 98 566 8 766
4046 0.68868919312474575 0.89345456412021707 2.0323030829386179 110 213 124 0.57586944771902038 77 1975 63 1241 82 1495 61 63
5420 0.40207769825854689 0.83006194993772475 1.8393232619741564 178 184 132 0.26603681668971085 12 1444 31 814
4051 1.2598344781247739 1.9309003785548471 2.3651295329519995 247 232 207 0.57733804358239205 77 2111 63 1380 55 1460 82 1707 49 890 43 589 61 297 43 158 76 351 60 1547 79 1484 26 1048 20 675
4698 0.37219451887606719 2.3126172828952147 2.2394461009689706 114 178 86 0.15645942698802862 12 848 98 604
5419 0.28324012305127244 1.5983153582230003 2.630277828902079 48 90 39 0.016344731137376802 98 1325 31 780
4069 0.67236904598557079 2.039299286628522 2.3059844116166883 60 94 52 0.10203684587369667 95 1514 63 1500
12864 -0.16459597592351422 1.687444473720082 2.9421710419714464 190 165 128 0.72031132934202169 19 487 22 1153 71 1305 96 659 13 853 65 722 18 480 99 499 56 786
4083 1.085841295643545 1.5992050464346708 2.5902554119764432 65 92 40 0.45318352231464387 77 2060 63 1686 55 1813 49 1372 43 558 33 1090 44 618 41 76 9 776
4730 0.017530372108450289 2.2056939878178539 2.3759332905030264 224 215 213 0.7819863693952106 62 804 98 932 30 501 51 1066 70 796
4085 0.012068101046974889 1.0133305410185061 1.9127135532567874 71 137 72 0.011394043955068409 95 1293 63 1690
4093 -0.18263865287649328 1.5479283265434589 2.0836812802524429 68 105 49 0.27442643996797594 82 1638 63 1797 61 817 43 1002
4094 0.99637938946329407 2.3306333729946864 2.2486553852279241 91 164 76 0.074501180563824224 95 1884 63 1799 55 1896
12367 -0.14258516133639604 2.1284703686171285 2.4870063528077209 131 138 69 0.16638241719346145 22 701 71 703 99 152
5040 0.47206395318618888 0.68157054664464822 1.754687338677726 101 100 46 0.51337410453763033 55 1760 49 1670 43 1123
4097 0.80545606827626581 2.3684912996662661 2.2102954352333795 182 200 123 0.26610297786632248 95 1873 63 1821
4098 0.54875010135387348 2.2408661202953133 2.2405374097620854 230 218 136 0.15719766389044298 77 2151 63 1826
7613 0.35402489263229298 2.5932524760104685 2.2562898873154267 145 143 103 0.13996411476094484 60 1699 79 1628 26 836 20 759 53 604
4100 0.4058074689111198 2.2119316381742138 2.2649464494030966 57 107 52 0.23342008955178367 62 1637 77 2142 82 2124 63 1833 9 837
5044 0.39818689297347931 0.97126105228965676 1.9639571031370811 85 168 93 0.25723327641371874 55 1787 49 1691
4102 0.42689284146280343 2.4366749127857648 2.2199722233833046 242 230 144 0.047095608857828257 16 1751 63 1855
4103 1.0087686230980513 1.506947487684251 2.6572832781038387 42 79 32 0.74496002710273745 77 2048 63 1906 82 2034 55 1810 49 1711 43 939 61 802 76 1478 33 1409 44 753 9 781
4104 0.90983261858102205 1.7095322049478261 2.5007005983920427 181 169 114 0.23614338243683053 95 2006 63 1924 98 1528 43 599
7611 0.10627010196123166 2.5791769801844198 2.2547263706694749 63 113 56 0.48588993324660662 60 1694 79 1625 26 822 20 749 93 243
5048 0.36851383058078824 1.0815860142471692 2.0779903447549071 89 170 98 0.50172732858813174 55 1800 49 1709 43 907
4105 1.2112559897369108 2.0253010903133553 2.3919348185890263 208 199 138 0.43365625137614289 2 1859 63 1941 55 2033 98 1533 8 1491 31 863 78 1225 88 443
4106 0.26904719576769892 1.5467513238280353 2.6623200477398248 68 93 45 0.41739033242693779 62 1776 63 1943 49 1791 8 1579 31 1002
4107 1.283024730317796 2.1783676701425554 2.3209170997303614 122 173 88 0.59411597070313071 77 2464 63 1948 55 2043 82 2299 49 1933 43 1188 61 1469 50 414 36 283
6074 0.15646893893677319 2.252170405672469 2.3060451334075158 243 219 128 0.43307723979066942 63 654 61 502 76 1229 65 353
4108 1.0905689750171144 2.0687657465258233 2.3250779596198119 237 230 153 0.24410593103285336 59 2280 77 2331 63 1950 37 1496 55 2050 49 1940 43 978 33 1418
5052 -0.022465072188612469 1.2763876402491667 2.2436753429372214 65 137 74 0.28029213809313003 82 2003 49 1778 43 956 61 1161 76 2028 60 1813 85 1869
4109 -0.18956418749910589 1.3026751485982075 2.1886856533264982 109 81 52 0.72855385536907991 77 2004 63 1955 82 2007
4111 0.75695866017864699 2.2344039733112426 2.2364007001412154 202 202 128 0.59700437216752678 16 1921 63 1995 83 1651 98 1576 43 1218
12222 0.41850434833058064 2.4688686350688558 2.2168682691177644 0 0 0 0.17811674246470238 12 1226 83 885
4114 0.06251721195625537 2.2996982361335934 2.3218491403377852 223 209 118 0.20901617816575985 77 2348 82 2327 63 2024 55 2129
7565 0.099897996586795629 2.7301998163573993 2.4990046127426275 189 188 195 0.32895456477181007 60 1276 79 1273 26 899 27 1442
4115 0.45274204011813141 0.90544543623362872 1.9083180707617624 80 162 88 0.30381818581133135 95 2074 63 2044
4116 0.10673132042361953 0.74539128571837865 1.6899850368505369 92 83 52 0.68900168081446245 77 2489 63 2046 49 2158 43 1395 33 1703 41 830
5511 0.12363760080426585 2.6723604481246248 2.4213116202820006 124 96 69 0.25699866871678073 37 1010 59 1322 100 326 64 356 7 913
4996 0.12919936118172592 1.1512856529856146 2.0810795070071841 167 176 129 0.12271455196435632 55 1452 49 1410 43 541
4117 0.86529841051531697 1.3267854142390787 2.7514244381239492 135 117 66 0.56449261499808878 62 1828 63 2052 54 1575 8 1430 31 805
4118 0.93083878808588016 1.5667586579067188 2.5981650049514462 160 156 102 0.59177689642762643 77 2425 82 2404 63 2056 55 2161 49 2081 43 1315 61 1433 76 2037 44 850
5505 0.44269554174250764 2.3763319326325427 2.224316046809617 232 218 129 0.151607823905553 37 963 59 1754 100 291 43 775 64 306 41 214 43 348
4119 0.47703989503766958 1.3595756510868635 2.6490109988402613 102 88 59 1.1956305964393956 2 1887 63 2060 55 2170 49 2093
8070 0.66228652770234597 2.6142057396018696 2.2926986073618179 51 101 54 0.087117235034059146 79 660 20 372 27 507
7563 0.50832583544729903 2.7009875043690359 2.4099179520887213 141 130 118 0.35145362831974314 60 1268 79 1250 26 488
5000 0.06935906114150113 1.1754736169444162 2.110281422143236 71 140 76 0.05689091257831641 55 1467 49 1429
4123 0.44439267229508495 1.729153571328871 2.495478720312398 99 116 61 1.4325140238638903 62 1951 63 2157 55 2268 8 1679 30 758
4124 1.1578712878246677 2.2693019130203549 2.2609661657649953 96 169 79 0.67106109863599506 12 1874 63 2164 55 2272 49 2176 43 1479
5519 0.71967875247659863 2.4878593323582692 2.2079945234120748 94 166 82 0.31936480674083789 37 1030 74 476 100 355 61 1007
4125 0.86492032136265518 2.6149868488010584 2.3102393772981804 0 0 0 0.17178501521294762 2 1987 63 2177
4128 1.3087319007150069 2.0699801300599785 2.4058496742697901 93 131 58 0.97377281098738555 82 2557 63 2209 54 1845 62 2004 55 2317 49 2226 8 1694 31 1049 43 1466
